124.39107,131.295,-71.22281,88
124.567535,134.02599,-68.827065,86
124.74255,136.74664,-66.538635,86
124.91014,139.47174,-65.01091,92
125.07086,142.20671,-64.216484,98
125.23162,144.93793,-63.42175,96
125.39073,147.6711,-62.819386,84
125.54695,150.41258,-62.561886,84
125.70018,153.1662,-62.677967,85
125.852,155.92863,-62.998035,81
126.00473,158.69106,-63.25754,78
126.15705,161.45966,-63.61218,77
126.30965,164.23122,-63.974716,75
126.46452,166.9944,-64.10234,80
126.61999,169.7573,-64.19431,78
126.77662,172.51541,-64.16966,69
126.93446,175.26744,-64.02025,66
127.09147,178.02826,-64.01891,64
127.24829,180.79437,-64.086914,61
127.40684,183.54877,-63.948593,51
127.567116,186.28894,-63.588886,51
127.72753,189.02887,-63.237194,44
127.88158,191.84102,-63.904198,44
128.04208,194.58723,-63.618374,46
128.19847,197.38742,-64.038345,33
128.35732,200.1642,-64.118904,34
128.51425,202.97415,-64.582245,39
128.67531,205.73264,-64.39293,38
128.8372,208.48195,-64.0947,40
128.99957,211.22572,-63.736755,29
129.15668,214.06691,-64.43241,30
129.31487,216.90234,-65.01381,30
129.46457,219.92209,-67.425095,26
129.61151,223.03671,-70.63371,27
129.74611,226.47914,-76.8286,28
129.87498,230.14694,-84.8184,28
130.00316,233.94826,-93.62645,32
130.14941,237.38847,-98.75938,48
130.31036,240.48883,-100.659996,64
130.47717,243.44812,-101.25168,70
130.64424,246.41838,-101.89288,96
130.81377,249.32494,-101.970116,76
130.98445,252.20111,-101.78586,94
131.15564,255.06586,-101.50586,92
131.3266,257.95087,-101.37749,105
131.49715,260.86627,-101.4687,112
131.66748,263.81055,-101.75424,117
131.83838,266.74554,-101.94827,120
118.20937,-21.532236,-17.530523,15
118.0334,-21.459097,-36.6033,16
116.508606,-32.52151,-139.41753,16
116.37761,-30.933681,-161.87784,15
116.99353,-22.374596,-142.38654,16
117.585625,-15.917545,-114.13249,16
116.07006,-23.90539,-232.76463,15
117.104324,-13.164415,-180.62067,16
117.37439,-8.276448,-178.43555,16
117.01021,-6.912724,-225.0656,15
118.29801,5.082908,-152.79971,16
118.38411,7.630654,-157.65227,16
118.519775,10.522189,-159.10333,16
118.08949,9.720034,-201.06822,15
117.89613,10.581778,-226.768,16
119.946175,28.522379,-105.710556,16
120.69277,35.90449,-66.46527,17
120.65361,39.614574,-91.73726,17
120.74912,43.188152,-101.69423,20
121.10977,47.14839,-85.09119,19
121.20409,49.69361,-89.39569,18
120.768814,49.65612,-136.5652,17
121.643555,60.304478,-102.58859,25
121.834175,63.32888,-99.298805,21
121.9244,65.929504,-104.5421,17
122.089195,68.840225,-103.47364,17
122.24663,71.71757,-103.04356,17
122.44988,74.75248,-98.55585,22
122.61819,77.650314,-97.11781,39
122.766304,80.47742,-97.50227,26
122.93602,83.36801,-95.92559,37
123.11275,86.26928,-93.67536,31
123.29125,89.16358,-91.2195,34
123.46271,92.02947,-89.39624,37
123.63418,94.885864,-87.54715,44
123.803246,97.72831,-85.90679,44
123.97511,100.566574,-83.96399,38
124.15722,103.408424,-80.95126,29
124.33727,106.23259,-78.08855,37
124.49726,109.02543,-77.265045,52
124.65101,111.81031,-77.11072,75
124.80085,114.59317,-77.403824,86
124.95014,117.37758,-77.79136,89
125.10266,120.16323,-77.86398,82
125.26219,122.94534,-77.17444,74
125.42816,125.71813,-75.75432,83
125.597336,128.47945,-73.938416,84
125.76847,131.22795,-71.86119,94
125.943565,133.95752,-69.26401,88
126.11569,136.67937,-66.97155,85
126.27982,139.4097,-65.63481,92
126.44028,142.14433,-64.75959,95
126.59939,144.87961,-64.06245,93
126.75704,147.61754,-63.567913,91
126.91233,150.36436,-63.41675,82
127.06589,153.12027,-63.536533,86
127.217964,155.88701,-63.91379,82
127.37033,158.65707,-64.30683,79
127.523224,161.42918,-64.68234,84
127.67657,164.20364,-65.04747,78
127.83096,166.97633,-65.31795,79
127.98646,169.74553,-65.47266,78
128.14272,172.51259,-65.55472,72
128.3001,175.27373,-65.50509,58
128.45732,178.03978,-65.52668,66
128.61485,180.80736,-65.55476,55
128.77332,183.56868,-65.46474,45
128.93227,186.32834,-65.34034,41
129.09273,189.07155,-64.96952,40
129.2481,191.88815,-65.63656,41
129.4067,194.6688,-65.754005,40
129.56627,197.44061,-65.73211,38
129.72533,200.22768,-65.88668,33
129.88411,203.0284,-66.18167,37
130.04388,205.81978,-66.33153,35
130.20491,208.59482,-66.26931,37
130.36612,211.37244,-66.223724,31
130.52354,214.24956,-67.23699,28
130.68465,217.05473,-67.42387,35
130.83481,220.17221,-70.76906,26
130.99121,223.16402,-72.67413,38
131.12883,226.79382,-80.6333,25
131.26825,230.50168,-88.91137,26
131.40997,234.2759,-97.37703,30
131.5693,237.50941,-100.56941,53
131.73587,240.5045,-101.507706,61
131.90373,243.4731,-102.16111,92
132.07341,246.37639,-102.22318,77
132.24391,249.2534,-102.052635,90
132.4145,252.14227,-101.969124,86
132.58554,255.01625,-101.758316,102
132.7565,257.91537,-101.73395,108
132.92769,260.81757,-101.71979,103
133.09888,263.7494,-101.909904,106
133.27042,266.68686,-102.11954,114
119.18272,-24.831455,-40.666504,16
119.31795,-21.362793,-45.45728,15
118.728455,-25.156355,-94.73706,15
118.712074,-22.900818,-110.82438,15
119.037094,-18.424273,-98.53795,15
119.10783,-15.36272,-108.97092,15
117.63913,-25.224312,-229.48198,15
118.66676,-13.024912,-178.6696,16
116.65049,-26.463821,-344.94394,15
117.26395,-19.503845,-312.6754,15
118.839615,-5.157218,-207.27661,15
119.90106,7.655169,-156.57921,15
120.14218,11.308276,-149.90103,16
119.530205,10.784123,-223.5374,15
120.25553,17.87352,-178.3229,16
122.17042,37.379566,-64.36653,17
122.16838,43.070717,-102.29742,19
122.58,48.438396,-85.77571,19
122.381935,50.355743,-123.772224,17
122.941124,58.530872,-107.519066,16
123.16729,61.76468,-100.51807,25
123.32612,64.65299,-99.80385,18
123.36269,66.98712,-110.96758,17
123.66549,71.610855,-103.756165,17
123.88373,74.73156,-97.15937,18
124.03483,77.56921,-97.24931,26
124.18821,80.4139,-97.12928,21
124.33701,83.24124,-97.517845,21
124.52188,86.18102,-94.09109,25
124.68768,89.049545,-92.656494,37
124.85704,91.919754,-90.81413,41
125.025475,94.778336,-89.04217,39
125.19203,97.623795,-87.45597,39
125.3568,100.45761,-86.05577,41
125.52606,103.29099,-84.11348,37
125.70653,106.128494,-80.79547,28
125.87303,108.93545,-79.093994,42
126.02963,111.72699,-78.58666,59
126.18255,114.51451,-78.56376,78
126.33409,117.30191,-78.74973,87
126.48833,120.08953,-78.628716,83
126.64674,122.87385,-77.97751,91
126.80976,125.65007,-76.7184,88
126.97778,128.41245,-74.7538,97
127.14782,131.16031,-72.45938,95
127.319984,133.89078,-69.81043,87
127.48849,136.61615,-67.62521,90
127.65104,139.34811,-66.28293,91
127.810455,142.08455,-65.410416,90
127.968414,144.82307,-64.77345,91
128.12515,147.56485,-64.34645,93
128.27988,150.31651,-64.285934,81
128.43336,153.0773,-64.48263,85
128.58578,155.84883,-64.92497,83
128.73898,158.62093,-65.304306,83
128.89168,161.40286,-65.85177,85
129.04608,164.17809,-66.16741,75
129.20082,166.95605,-66.48837,81
129.35628,169.73361,-66.74987,75
129.51256,172.5086,-66.91943,62
129.66989,175.2771,-66.93794,59
129.8269,178.05466,-67.09441,48
129.98483,180.82661,-67.12695,50
130.14304,183.6,-67.16275,42
130.30135,186.37825,-67.25277,45
130.46094,189.1416,-67.101685,37
130.6197,191.92558,-67.234886,42
130.77792,194.72946,-67.61016,40
130.93951,197.47238,-67.148,35
131.09795,200.2927,-67.67557,36
131.25775,203.09372,-67.91744,38
131.41801,205.89534,-68.13498,35
131.57861,208.7011,-68.37015,37
131.73898,211.52872,-68.818726,28
131.89804,214.42303,-69.94542,30
132.05739,217.3414,-71.24497,23
132.21457,220.39128,-73.79994,23
132.37248,223.47545,-76.544136,31
132.52435,226.96179,-83.021805,25
132.67273,230.83183,-92.77643,24
132.82852,234.48402,-100.03114,40
132.99525,237.53485,-101.52274,47
133.16367,240.51361,-102.29746,80
133.33305,243.45897,-102.735054,88
133.50351,246.32936,-102.509674,74
133.67404,249.22093,-102.452835,84
133.84499,252.088,-102.187515,95
134.01608,254.96436,-101.99123,103
134.1874,257.85547,-101.90183,99
134.35892,260.75702,-101.88042,104
134.53072,263.68994,-102.07662,102
134.70287,266.61923,-102.22526,112
120.490524,-25.367088,-43.997387,16
120.76109,-21.278894,-34.266678,16
120.706154,-19.057491,-58.803833,16
120.068794,-23.08415,-123.13999,15
120.85266,-14.044499,-74.45005,15
119.792206,-21.807316,-173.72816,15
119.54132,-20.812195,-218.573,15
120.409676,-9.539063,-174.39497,15
118.97162,-19.611609,-312.8428,16
120.64476,-3.201323,-187.57356,15
121.1172,3.445223,-167.67805,15
122.18725,16.599483,-108.22452,16
121.21493,12.400308,-222.38147,15
122.15891,21.60407,-151.51439,16
121.90485,21.508284,-189.25163,16
123.63827,37.11325,-49.121735,17
123.43137,38.22276,-89.331245,18
123.51002,40.57586,-96.04184,17
123.62814,43.216965,-99.06878,19
123.91686,46.99268,-85.181496,21
124.00846,49.449715,-90.866234,19
124.009705,51.359814,-106.00865,17
124.62585,58.94347,-72.878426,16
124.436386,59.814533,-108.957054,15
124.67917,63.186584,-99.09897,24
124.83374,66.053764,-98.720505,17
125.08075,70.423096,-96.46152,17
125.22345,73.222305,-97.458916,17
125.4018,76.18373,-94.35084,18
125.552,79.01117,-94.51143,18
125.77592,83.24512,-94.99265,20
125.92173,86.05495,-95.8019,24
126.08853,88.93739,-94.01412,38
126.25652,91.814224,-92.0476,37
126.419876,94.668175,-90.65171,43
126.582695,97.51348,-89.30563,44
126.74597,100.352585,-87.882355,47
126.90972,103.18506,-86.37727,44
127.078896,106.01785,-84.077324,32
127.25022,108.84123,-81.420166,34
127.41074,111.642334,-80.27667,45
127.56629,114.43527,-79.882614,63
127.7198,117.2261,-79.82624,78
127.87629,120.01564,-79.345634,85
128.034,122.80179,-78.68994,92
128.19556,125.57982,-77.415306,90
128.36108,128.34415,-75.45356,91
128.52899,131.09229,-73.02875,88
128.69766,133.82452,-70.38941,87
128.86252,136.55446,-68.36453,86
129.02344,139.28856,-67.02751,86
129.18156,142.0283,-66.21162,84
129.33875,144.76944,-65.594406,86
129.49483,147.51523,-65.23211,86
129.64926,150.27205,-65.26216,84
129.80273,153.0387,-65.55788,88
129.95609,155.81226,-65.98029,82
130.1096,158.59084,-66.456154,84
130.26335,161.37544,-66.99715,81
130.41838,164.15399,-67.320915,83
130.57417,166.9308,-67.55555,79
130.72993,169.71556,-67.90611,64
130.88641,172.49829,-68.16623,73
131.0443,175.26733,-68.13624,50
131.20053,178.07146,-68.6968,51
131.35902,180.84467,-68.68157,43
131.51787,183.61798,-68.65292,41
131.67664,186.4017,-68.766624,40
131.83566,189.18802,-68.89285,40
131.99464,191.98856,-69.19256,37
132.15451,194.77815,-69.305405,43
132.31592,197.52531,-68.84043,31
132.47624,200.3206,-68.99774,36
132.63564,203.17557,-69.855934,37
132.7975,205.94193,-69.5971,36
132.95851,208.76814,-70.02423,37
133.11926,211.64703,-70.99489,29
133.27971,214.59932,-72.686424,27
133.44124,217.53699,-74.114006,23
133.60191,220.66023,-77.342415,21
133.76347,223.85701,-81.11487,28
133.92535,227.27383,-86.8072,23
134.08675,231.32893,-98.22109,23
134.25427,234.60686,-101.902374,41
134.42366,237.58528,-102.70071,56
134.59358,240.53389,-103.18423,66
134.76385,243.41579,-103.05892,82
134.93442,246.30472,-102.98289,87
135.10518,249.18077,-102.78923,86
135.27611,252.04527,-102.49682,92
135.4473,254.92021,-102.2842,96
135.61887,257.81454,-102.21432,97
135.79077,260.72046,-102.22037,97
135.96303,263.63693,-102.289474,101
136.1359,266.58136,-102.544334,103
121.81769,-26.390917,-40.98526,15
121.955055,-23.638313,-40.950954,16
122.145905,-19.683542,-42.16278,15
121.74626,-22.156183,-92.72287,15
121.448746,-23.35237,-136.36996,16
121.67076,-19.599663,-130.22205,16
121.48519,-20.149817,-159.36093,15
121.75378,-15.185247,-156.02238,15
121.34634,-17.885698,-206.25334,16
121.96605,-10.073573,-164.64577,16
120.686066,-20.510693,-304.32144,15
122.39177,-1.300294,-168.4257,15
122.766754,5.412176,-162.39526,16
122.915665,8.389965,-163.05998,16
124.1983,22.537401,-58.326057,16
123.21171,15.96822,-180.65825,16
123.30138,18.442486,-187.83134,16
123.383835,21.742744,-204.52188,15
124.67096,34.316345,-83.95413,17
124.757774,36.646442,-90.445724,17
124.87633,39.249287,-93.65117,19
124.981514,41.7539,-98.47858,20
125.24421,45.484463,-85.53145,19
125.35635,48.038143,-89.62843,19
125.50451,50.866226,-89.65137,18
125.918365,57.330513,-75.46745,16
126.16767,62.61399,-81.13964,17
126.175514,64.53204,-99.1597,21
126.34207,67.4747,-97.13776,17
126.491455,70.30754,-97.3622,17
126.64688,73.17283,-96.80734,18
126.83869,76.22732,-91.24016,17
126.983475,79.0209,-92.11451,17
127.20304,83.22534,-93.220894,22
127.34918,86.02879,-94.08446,30
127.49917,88.84986,-94.43773,37
127.66014,91.71166,-93.150406,48
127.81802,94.556114,-92.33858,49
127.979576,97.40696,-90.93684,46
128.14224,100.253395,-89.32907,46
128.30327,103.08769,-87.97717,51
128.4642,105.91476,-86.61711,38
128.63097,108.743034,-84.19728,34
128.79466,111.55577,-82.2703,38
128.95222,114.355194,-81.44498,54
129.10829,117.1502,-80.923904,65
129.2651,119.942184,-80.27659,81
129.4226,122.73027,-79.51477,85
129.58347,125.50909,-78.0564,84
129.74625,128.27577,-76.14938,84
129.91083,131.02655,-73.778984,84
130.07605,133.76141,-71.17011,79
130.2379,136.49554,-69.25853,80
130.39728,139.23187,-67.9128,84
130.55484,141.97166,-67.00056,84
130.71133,144.71559,-66.40935,85
130.86682,147.46555,-66.11973,75
131.02103,150.22906,-66.28984,76
131.17497,152.99997,-66.63202,79
131.32896,155.77832,-67.11039,82
131.48337,158.55995,-67.58932,84
131.63864,161.33893,-67.927986,85
131.79413,164.12375,-68.33936,78
131.95009,166.91153,-68.74947,73
132.10681,169.69429,-68.99955,65
132.26353,172.48933,-69.43991,55
132.4217,175.26123,-69.401855,46
132.57878,178.0756,-70.08299,54
132.73746,180.8586,-70.170456,44
132.89609,183.65755,-70.48483,43
133.05559,186.43848,-70.48441,38
133.2151,189.23764,-70.732346,39
133.37502,192.03969,-70.98562,40
133.53558,194.82324,-70.954544,38
133.69655,197.59929,-70.80998,34
133.85768,200.38797,-70.818245,35
134.01872,203.24355,-71.62752,34
134.18079,205.99716,-71.16277,39
134.34277,208.85956,-71.9577,33
134.5053,211.76936,-73.21672,29
134.66858,214.76112,-75.273636,26
134.8329,217.78386,-77.52424,20
134.99854,220.90372,-80.62924,22
135.16626,224.18579,-85.16668,27
135.33829,227.85863,-93.23978,28
135.51349,231.62053,-101.7307,32
135.68448,234.67046,-103.229,60
135.85498,237.61456,-103.68818,81
136.02551,240.52406,-103.80715,67
136.19586,243.39786,-103.59833,79
136.36658,246.27994,-103.45385,70
136.53716,249.1373,-103.09772,71
136.70808,252.00305,-102.80925,85
136.87929,254.87675,-102.58088,90
137.05116,257.7725,-102.51663,88
137.22339,260.6773,-102.50949,91
137.39647,263.6109,-102.70046,96
137.56975,266.54297,-102.85913,94
123.15382,-26.690912,-42.610023,16
123.07108,-26.157108,-68.81241,16
123.22454,-22.088085,-80.71212,16
123.51776,-17.400589,-66.454796,15
122.881386,-23.98888,-140.79282,15
122.8489,-23.180067,-158.54306,15
122.9525,-20.719814,-163.41612,15
122.880005,-19.688229,-193.83667,15
122.46594,-22.511114,-260.4994,15
122.37946,-19.92741,-314.1157,15
124.02869,-0.058431,-155.66466,15
124.12759,2.360866,-161.68492,16
124.35924,6.234995,-153.20824,16
124.41888,8.235741,-163.83594,15
125.14584,17.340864,-98.607124,16
125.306274,20.348698,-97.05506,15
124.88359,17.326944,-164.21878,15
124.69433,16.847412,-205.6448,15
124.642944,17.852583,-231.68611,15
125.88997,32.43588,-107.01752,17
126.165306,36.52899,-91.00325,17
126.279564,39.05414,-95.289925,19
126.41729,41.8049,-96.673645,20
126.66034,45.512993,-84.0007,17
126.7709,48.003864,-88.99643,21
127.06499,54.430576,-99.96884,17
127.01927,56.52802,-140.09235,16
127.48813,61.934174,-92.82237,15
127.58453,64.36224,-101.06301,17
127.75131,67.33036,-98.603966,20
127.97081,71.54938,-99.79022,16
128.16437,74.67698,-92.78923,16
128.30876,77.46453,-93.91061,17
128.46118,80.30233,-93.73177,19
128.61897,83.16831,-92.62226,21
128.76703,85.97542,-93.30349,32
128.91562,88.785904,-93.975006,32
129.06827,91.616295,-93.94643,37
129.2263,94.46805,-92.892525,52
129.38258,97.3071,-92.201836,45
129.54305,100.156235,-90.63774,47
129.70103,102.98999,-89.588234,47
129.85861,105.81714,-88.61512,50
130.02008,108.64632,-86.748535,40
130.18282,111.467575,-84.51553,36
130.34229,114.2749,-83.010345,43
130.49913,117.07411,-82.159904,55
130.65575,119.86905,-81.38511,67
130.81334,122.65875,-80.35904,74
130.97247,125.439644,-78.87443,73
131.13283,128.20879,-76.988014,84
131.29443,130.96175,-74.60462,80
131.45612,133.70033,-72.08548,73
131.61548,136.43797,-70.227646,72
131.77304,139.17831,-68.951614,76
131.92978,141.91968,-67.986984,81
132.0857,144.66571,-67.378334,77
132.24112,147.41718,-67.05237,75
132.39558,150.18512,-67.287994,72
132.55026,152.9583,-67.62217,77
132.7049,155.74297,-68.203,81
132.86032,158.52458,-68.611,81
133.0163,161.30618,-68.94974,79
133.1726,164.09311,-69.350266,71
133.32933,166.88387,-69.7688,75
133.48648,169.67935,-70.22074,73
133.64418,172.4735,-70.58426,56
133.80237,175.26465,-70.84121,57
133.96082,178.07341,-71.36159,48
134.11992,180.86356,-71.512215,43
134.2793,183.67223,-71.92604,48
134.43916,186.46786,-72.09183,41
134.59941,189.2676,-72.287346,36
134.76009,192.0835,-72.67858,34
134.92111,194.88562,-72.838684,43
135.08243,197.67766,-72.839,36
135.2443,200.4962,-73.15767,32
135.4065,203.30904,-73.36957,36
135.56909,206.12527,-73.59248,34
135.73276,208.99683,-74.419655,31
135.89742,211.90555,-75.59607,27
136.06537,214.98976,-78.58618,23
136.32051,219.70169,-83.62019,21
136.49248,222.87576,-87.06128,22
136.67561,226.57805,-95.49435,20
136.85977,230.22968,-102.996056,39
137.03256,233.26299,-104.33611,66
137.20274,236.15509,-104.30996,70
137.37363,239.06432,-104.42122,64
137.54398,241.94002,-104.22167,64
137.71458,244.81523,-104.01134,68
137.88464,247.66142,-103.55429,74
138.05563,250.53761,-103.34612,81
138.22707,253.4204,-103.18418,85
138.39886,256.30798,-103.05208,86
138.57079,259.19354,-102.89516,88
138.74377,262.10803,-102.946335,88
138.91805,265.05765,-103.23785,86
124.52201,-26.59381,-41.42108,15
124.21169,-29.782896,-94.705345,16
124.80279,-20.572697,-47.71842,16
124.71227,-21.010975,-71.98265,15
125.10741,-14.638597,-44.50392,16
124.25324,-25.161297,-161.54965,16
124.39271,-22.289505,-163.0793,15
124.54117,-19.297348,-163.65404,15
124.347466,-20.937653,-203.8104,15
124.015495,-24.369104,-261.48972,15
124.23588,-20.343727,-255.15851,16
123.93737,-23.193573,-311.5573,15
126.072845,6.91795,-87.60818,15
126.11658,8.965207,-109.87916,15
126.1999,11.048057,-118.32327,15
126.303085,13.392355,-124.45515,16
126.743065,19.936495,-85.1101,16
126.65713,20.464775,-127.51212,16
126.32028,17.499102,-196.99867,15
126.611206,22.773743,-189.74112,16
127.284454,31.894579,-112.94886,17
127.571434,36.37782,-92.00412,17
127.69389,38.93533,-95.87957,22
127.86609,42.056137,-92.02679,19
128.06271,45.434284,-84.055214,17
128.17656,47.89106,-89.570946,22
128.27603,51.49125,-123.98056,19
128.5281,56.780148,-134.0121,17
129.00992,64.299866,-100.77636,16
129.16835,67.22181,-99.29582,19
129.33351,70.19722,-96.40052,16
129.57132,74.55396,-93.96619,16
129.71233,77.30397,-96.17484,18
129.86931,80.18432,-94.93955,19
130.0281,83.07168,-93.26325,22
130.17874,85.89259,-93.528984,26
130.33382,88.74194,-92.76526,32
130.4844,91.55796,-93.199776,31
130.63687,94.384544,-93.229256,39
130.7931,97.2293,-92.28271,45
130.94748,100.05978,-91.8918,41
131.10358,102.89437,-91.025154,41
131.26013,105.725494,-90.03914,48
131.4177,108.554146,-88.70769,49
131.57738,111.38002,-86.59441,44
131.73566,114.19344,-84.90463,45
131.89267,116.997795,-83.63876,48
132.04901,119.79611,-82.623344,56
132.20572,122.58847,-81.46979,60
132.36298,125.37267,-80.025635,65
132.52141,128.14284,-77.936356,67
132.67992,130.89949,-75.632545,72
132.83824,133.64279,-73.23624,70
132.99545,136.38242,-71.3163,70
133.15157,139.12495,-70.004005,70
133.30713,141.87123,-69.129295,72
133.46251,144.61967,-68.4985,72
133.61763,147.37633,-68.25041,68
133.77275,150.14421,-68.384544,72
133.92807,152.92146,-68.7555,71
134.08377,155.70427,-69.207466,77
134.24,158.48663,-69.56885,82
134.39665,161.27525,-70.01642,76
134.55374,164.06717,-70.46749,75
134.7113,166.85684,-70.80246,69
134.86935,169.65941,-71.34329,66
135.02786,172.462,-71.812325,64
135.18684,175.26622,-72.248825,48
135.34628,178.07553,-72.7157,53
135.50583,180.86244,-72.75491,54
135.66618,183.67754,-73.219864,50
135.82698,186.49586,-73.67941,35
135.98793,189.30203,-73.90889,42
136.14978,192.13406,-74.46804,37
136.31133,194.93372,-74.53136,38
136.47336,197.7406,-74.66798,44
136.6359,200.55507,-74.875046,37
136.80057,203.43947,-75.90799,36
136.96356,206.24246,-75.89438,30
137.12973,209.15044,-77.07166,27
137.29599,212.04568,-78.02118,25
137.4701,215.18977,-81.593025,21
137.64836,218.4448,-86.11563,21
137.82266,221.54239,-88.76452,20
138.11475,227.0995,-101.4,23
138.29628,230.34991,-104.913574,50
138.4687,233.30843,-105.50936,73
138.63731,236.14474,-104.94698,75
138.80885,239.05951,-105.09388,72
138.97911,241.93092,-104.842125,69
139.1499,244.81018,-104.65275,59
139.3204,247.67627,-104.34747,70
139.49095,250.53694,-103.99675,83
139.66255,253.42088,-103.831085,84
139.83429,256.30286,-103.64226,80
140.00722,259.21103,-103.646545,86
140.18016,262.11206,-103.58282,87
140.35443,265.04327,-103.728516,93
125.73963,-28.939535,-57.516193,16
125.58882,-30.915249,-91.90786,16
125.71852,-28.245745,-93.476875,16
126.19356,-19.919336,-52.638786,15
126.39061,-16.177778,-45.2176,16
126.15483,-19.48704,-92.609726,15
125.85155,-23.551563,-160.26077,16
125.76978,-23.333527,-223.55876,16
125.78606,-22.427422,-243.76529,15
126.00307,-18.324959,-236.32317,16
125.6862,-22.650627,-305.751,16
125.789764,-20.312046,-316.0265,16
127.77733,11.41817,-43.51001,15
127.64005,10.486992,-108.384315,16
127.810356,13.735118,-104.717354,15
128.09602,19.048979,-93.96838,15
128.1989,21.253212,-101.268616,16
127.99147,18.81281,-162.74968,15
127.89938,18.16073,-206.76703,15
128.57133,28.83578,-113.97031,16
128.98386,36.27919,-92.308586,17
129.1118,38.845318,-96.07285,21
129.28796,42.09894,-90.34613,20
129.4506,45.148888,-87.156334,19
129.58386,47.77949,-90.12416,17
129.61366,48.982735,-116.16008,20
129.72812,51.374702,-124.62403,21
129.93146,54.97113,-112.79923,17
130.12285,59.278698,-141.05154,16
130.51276,65.69974,-99.73826,17
130.6704,68.63453,-97.86253,18
130.80597,71.29217,-102.2337,16
130.96452,74.22864,-100.19458,17
131.1231,77.15699,-98.0655,18
131.2795,80.05273,-96.53291,18
131.43648,82.947685,-94.75348,19
131.59207,85.820114,-93.402084,22
131.74802,88.68945,-91.880325,22
131.90157,91.52838,-91.266495,29
132.05312,94.34434,-91.55138,25
132.20433,97.15511,-92.17261,31
132.35797,99.98421,-91.84825,41
132.5107,102.80349,-92.10042,43
132.667,105.64342,-90.573616,49
132.82378,108.47829,-88.67135,47
132.97987,111.30123,-87.07845,47
133.1357,114.11545,-85.568,45
133.29097,116.92157,-84.42046,45
133.44562,119.72303,-83.87512,49
133.60077,122.519615,-82.90056,51
133.7563,125.30818,-81.52492,54
133.9123,128.08081,-79.27591,62
134.06805,130.83926,-76.8288,64
134.22336,133.58847,-74.6013,66
134.37825,136.33272,-72.73195,64
134.53291,139.07524,-71.23628,67
134.68756,141.82802,-70.50165,66
134.84233,144.5789,-69.82381,67
134.99744,147.34094,-69.643166,68
135.15297,150.11057,-69.71732,71
135.30898,152.88757,-69.97896,71
135.46548,155.66994,-70.331924,77
135.62238,158.4522,-70.61699,81
135.77989,161.24446,-71.087425,67
135.93793,164.04257,-71.61593,66
136.09624,166.83604,-71.969086,67
136.25543,169.64517,-72.581345,60
136.41502,172.45566,-73.14052,57
136.5746,175.2553,-73.43128,41
136.7355,178.08107,-74.13126,48
136.89525,180.86623,-74.07994,56
137.05658,183.68561,-74.559,41
137.21852,186.5116,-75.08304,49
137.38028,189.3241,-75.35135,41
137.54356,192.16742,-76.01732,49
137.70561,194.97073,-76.07481,34
137.86868,197.79237,-76.35273,35
138.03252,200.62488,-76.73238,32
138.19934,203.52008,-77.83815,30
138.36559,206.39392,-78.60541,28
138.53343,209.29729,-79.648865,27
138.71008,212.39441,-82.775314,21
138.88803,215.50896,-85.89348,22
139.03502,217.91553,-81.366745,20
139.36198,223.89497,-98.94443,17
139.55849,227.37762,-104.9195,30
139.73596,230.42883,-106.43624,63
139.90717,233.336,-106.51576,59
140.07623,236.19128,-106.10221,64
140.24745,239.08841,-106.06534,67
140.417,241.94475,-105.660645,67
140.58725,244.81148,-105.347496,64
140.75827,247.68959,-105.12711,72
140.92982,250.57472,-104.958694,73
141.10109,253.44963,-104.701645,72
141.272,256.31235,-104.345345,76
141.4453,259.22067,-104.33719,78
141.6188,262.1288,-104.314415,75
141.79332,265.05347,-104.39816,95
126.79968,-35.270996,-91.57667,16
127.24581,-26.415749,-48.95092,16
127.20137,-27.152992,-84.89252,15
127.57924,-19.616299,-60.303295,15
127.81355,-14.946283,-45.778263,15
127.2307,-26.23628,-168.85919,15
127.55866,-19.742193,-140.99213,16
127.31055,-24.47909,-218.92809,15
127.43126,-22.013449,-239.40135,16
127.574295,-19.154675,-242.9791,16
127.38299,-22.823242,-306.50568,15
127.436676,-21.685997,-344.66922,15
129.06444,10.107162,-82.72421,16
129.15607,11.961204,-122.43607,16
129.45016,17.71398,-92.16026,15
129.57101,20.087772,-97.428314,16
129.4935,18.603277,-164.24164,16
129.96536,27.793503,-108.07605,15
130.1627,31.629738,-114.35966,20
130.38019,35.851322,-96.95223,17
130.53743,38.89507,-94.35541,21
130.70049,42.045002,-90.039276,21
130.8692,45.29994,-83.82067,21
130.99124,47.640015,-91.102844,19
131.14415,50.54934,-112.98179,18
131.33173,54.116867,-126.36321,17
131.64091,60.004787,-125.55685,16
131.86075,64.21919,-99.30904,16
132.00081,66.86349,-103.695175,16
132.15926,69.8631,-100.52257,19
132.38408,74.09757,-101.553246,17
132.54523,77.1356,-96.593994,18
132.85371,82.92172,-93.18798,18
133.00685,85.78305,-92.07423,19
133.16121,88.6633,-90.019066,19
133.31276,91.48018,-90.11374,20
133.46683,94.34307,-88.07981,24
133.61885,97.15665,-88.06649,26
133.77087,99.96317,-88.46034,29
133.92343,102.77391,-88.68287,33
134.0766,105.591484,-88.370575,37
134.23021,108.41316,-87.35697,45
134.38382,111.227776,-86.626045,53
134.53755,114.03935,-85.603264,63
134.69145,116.845024,-85.70414,59
134.84561,119.650536,-85.45603,45
134.99983,122.45275,-84.778595,44
135.15369,125.24447,-83.15467,43
135.30708,128.02313,-81.064575,50
135.45981,130.78532,-78.5282,53
135.61235,133.53773,-76.20946,56
135.76495,136.28458,-74.24212,58
135.91808,139.03404,-72.888214,57
136.07158,141.78352,-71.82186,58
136.226,144.54292,-71.33802,60
136.38106,147.30705,-71.09275,60
136.53688,150.07918,-71.12506,60
136.69331,152.85674,-71.29567,65
136.85034,155.63829,-71.5339,71
137.00783,158.42296,-71.80072,72
137.16614,161.21628,-72.223076,72
137.32494,164.01324,-72.66016,63
137.48442,166.81688,-73.1719,59
137.64465,169.62885,-73.77988,48
137.8051,172.43813,-74.25654,47
137.96616,175.25429,-74.79571,48
138.12825,178.0827,-75.48074,44
138.28946,180.8913,-75.75925,50
138.45091,183.69908,-75.984634,49
138.61444,186.53773,-76.645035,41
138.7765,189.34654,-76.80041,45
138.94148,192.20041,-77.562325,67
139.10661,195.05212,-78.22328,41
139.2695,197.86093,-78.258545,37
139.43509,200.71126,-78.801254,33
139.60316,203.59981,-79.76043,27
139.77313,206.51677,-80.98009,24
139.9577,209.67885,-84.92942,21
140.14589,212.89839,-89.26896,20
140.31749,215.82938,-90.21267,24
140.49161,218.79945,-91.49963,18
140.71585,222.62349,-101.451775,18
140.91467,226.0076,-106.4698,23
141.09187,229.01668,-107.56718,59
141.26367,231.9303,-107.68887,66
141.43239,234.78632,-107.25697,61
141.60252,237.66298,-107.01626,60
141.7735,240.54922,-106.855965,67
141.94373,243.42014,-106.55576,65
142.11415,246.28967,-106.24186,71
142.28456,249.15547,-105.896805,66
142.45573,252.03096,-105.62973,64
142.62634,254.89322,-105.25483,60
142.79967,257.798,-105.208725,74
142.9726,260.6932,-105.077705,73
143.14804,263.6277,-105.22848,87
143.32327,266.55545,-105.310356,86
128.43427,-30.482487,-67.4002,16
128.71907,-24.12493,-41.900955,16
128.82903,-21.990492,-46.408867,16
128.97495,-19.273443,-57.155807,15
129.15141,-15.536829,-49.788795,16
129.35986,-11.631991,-62.829563,16
128.9337,-24.067415,-228.3776,16
129.10033,-20.7049,-227.23463,16
129.2415,-17.995462,-231.85301,16
128.88736,-27.968678,-352.7819,16
130.52528,12.375129,-32.913784,16
130.67102,15.323274,-30.451433,15
130.33466,5.539733,-157.03195,16
130.5224,9.48184,-147.48517,16
130.98405,19.179989,-122.7986,15
131.00626,18.579271,-163.58624,15
131.3386,26.588524,-104.312805,16
131.67154,32.71888,-118.041,17
131.9555,38.85232,-93.90251,19
132.11552,42.092968,-88.28869,21
132.28154,45.531586,-79.30481,20
132.45967,48.4171,-99.91735,18
132.61406,51.459682,-96.87567,17
132.66072,50.74548,-157.56769,17
132.78275,52.468227,-180.4836,17
133.28304,64.16687,-98.81974,17
133.50346,68.20598,-103.9308,16
133.65479,71.06253,-104.01277,18
133.88492,75.50506,-100.06001,17
134.03842,78.49201,-96.22208,18
134.26701,82.91192,-91.12706,17
134.41815,85.74364,-90.831985,20
134.56953,88.64559,-87.85405,19
134.72069,91.47701,-87.11277,20
134.87212,94.291084,-86.97425,22
135.02353,97.117165,-86.14762,24
135.17596,99.911255,-86.98823,29
135.32849,102.71897,-87.14384,34
135.48213,105.51749,-88.183136,38
135.63724,108.31443,-90.04039,43
135.7903,111.13572,-89.37895,42
135.94292,113.95498,-88.248405,42
136.09642,116.767914,-87.73899,36
136.24968,119.577644,-86.94528,34
136.40381,122.3854,-86.605865,35
136.5565,125.1849,-85.36933,37
136.7068,127.96613,-82.94087,43
136.85666,130.73447,-80.488716,46
137.00655,133.49283,-78.21158,50
137.15639,136.24144,-76.04167,50
137.30771,138.99316,-74.56343,54
137.46005,141.74673,-73.481186,54
137.61403,144.50935,-72.9525,52
137.76895,147.27689,-72.6765,55
137.92505,150.05243,-72.686646,56
138.08156,152.82909,-72.70977,61
138.2393,155.6158,-72.9882,58
138.39725,158.40225,-73.20402,62
138.55649,161.19983,-73.641716,60
138.71596,163.99788,-74.01986,61
138.87694,166.81084,-74.65545,52
139.03864,169.63017,-75.33396,49
139.20084,172.4529,-75.99155,40
139.36269,175.26955,-76.457954,42
139.52446,178.08258,-76.800285,48
139.6868,180.89938,-77.158905,48
139.84996,183.72417,-77.59679,46
140.01369,186.55331,-78.048325,40
140.17769,189.38277,-78.45307,38
140.34526,192.25609,-79.42889,45
140.51335,195.13393,-80.379074,35
140.6769,197.94928,-80.42645,33
140.84525,200.82564,-81.22794,34
141.01553,203.72574,-82.251144,27
141.1842,206.60086,-82.89655,23
141.38202,209.8698,-88.021614,20
141.57867,213.12509,-92.67328,20
141.87369,218.01126,-99.15708,18
142.07178,221.28954,-103.37682,18
142.26862,224.55098,-107.18199,29
142.44916,227.58476,-108.52836,49
142.62213,230.50995,-108.74696,50
142.79153,233.3826,-108.4471,52
142.9605,236.24478,-108.05096,61
143.13023,239.11482,-107.72804,60
143.30176,242.00705,-107.59816,57
143.47235,244.88278,-107.31865,59
143.64291,247.75536,-107.01003,62
143.81375,250.62871,-106.70636,64
143.98611,253.52031,-106.54594,67
144.1583,256.40698,-106.33941,66
144.33284,259.32526,-106.36825,63
144.50604,262.2209,-106.21192,75
144.68013,265.12756,-106.129425,76
129.51807,-39.306892,-118.77335,15
130.13553,-23.016659,-43.314926,16
130.14575,-24.264101,-72.97291,15
130.50171,-15.227234,-36.303383,16
130.97531,-2.106345,34.962967,15
131.09546,0.251966,33.562366,15
131.28876,5.099979,52.62932,15
130.77316,-18.111153,-203.87268,15
130.9167,-15.472775,-208.56367,16
130.58832,-30.381727,-373.99918,16
131.79912,9.781525,-57.17583,16
132.00537,15.21756,-30.792019,15
132.00252,9.002336,-151.65364,16
132.18839,13.465523,-136.0825,15
132.39497,18.96186,-108.17542,15
132.46506,18.222734,-149.45267,16
132.78531,27.297125,-94.961174,16
132.8691,26.838707,-135.6836,15
133.04657,31.25019,-117.21904,19
133.30064,37.482456,-92.17868,17
133.45207,40.662468,-87.46099,20
133.60246,43.814556,-82.76632,19
133.74911,46.70954,-81.53486,19
133.96259,50.328156,-90.99907,20
134.10852,52.930107,-94.826096,18
134.32202,54.88343,-135.96327,18
134.4794,59.705936,-100.89937,17
134.7039,64.172295,-97.16386,18
134.93845,67.130005,-125.88304,16
135.08435,70.80286,-108.27608,17
135.23988,73.45379,-113.74228,15
135.45699,78.34497,-98.16947,17
135.68217,82.6766,-96.057785,17
135.83206,85.557945,-94.528244,17
135.98158,88.4361,-92.79956,17
136.12885,91.33905,-89.66127,20
136.27838,94.186905,-88.2756,21
136.42932,97.01089,-87.7417,24
136.58092,99.82744,-87.46769,27
136.73361,102.636795,-87.5939,34
136.88678,105.44593,-87.7811,33
137.04222,108.24901,-88.77382,32
137.19283,111.070335,-87.54941,33
137.34613,113.881676,-87.382256,33
137.49773,116.69259,-86.46583,36
137.65424,119.502106,-87.22683,40
137.81252,122.31759,-88.38501,38
137.96494,125.12433,-87.486,34
138.1133,127.91419,-85.350174,36
138.25996,130.68784,-82.803116,38
138.40723,133.45235,-80.51938,41
138.55511,136.20987,-78.50214,40
138.70387,138.9628,-76.76074,48
138.85477,141.72008,-75.58671,46
139.00769,144.48393,-74.889755,48
139.16266,147.25682,-74.62257,47
139.31819,150.03105,-74.42553,53
139.47577,152.81738,-74.600914,51
139.63286,155.59845,-74.58833,52
139.79236,158.3963,-74.98925,51
139.95207,161.19489,-75.33907,50
140.11194,163.99333,-75.62745,50
140.27357,166.80586,-76.16487,48
140.4363,169.627,-76.80099,39
140.59949,172.4517,-77.42407,37
140.76193,175.26852,-77.825096,37
140.9245,178.08495,-78.16543,49
141.08862,180.9146,-78.67861,42
141.25195,183.73534,-78.98912,39
141.41801,186.58182,-79.65065,40
141.58376,189.42398,-80.18028,36
141.75499,192.32166,-81.43742,33
141.92287,195.18398,-82.10585,32
142.09082,198.04562,-82.70125,29
142.26111,200.93129,-83.54532,33
142.43674,203.87517,-85.03237,21
142.61743,206.87518,-87.07688,22
142.8347,210.28745,-93.7307,20
143.25836,217.01448,-104.776825,17
143.44464,220.09253,-106.797104,19
143.63234,223.18767,-108.86524,31
143.81105,226.17805,-109.76143,56
143.98389,229.09726,-109.90152,44
144.15393,231.98091,-109.68195,43
144.32281,234.84781,-109.30251,53
144.493,237.72755,-109.04176,67
144.66379,240.61159,-108.81528,62
144.83456,243.49268,-108.55902,56
145.00468,246.36313,-108.209656,51
145.1762,249.24808,-107.979576,60
145.34978,252.15593,-107.92945,62
145.52162,255.04,-107.679085,60
145.69438,257.93286,-107.49259,60
145.86827,260.83752,-107.388405,65
146.04042,263.71854,-107.09855,67
146.21487,266.62585,-106.997345,73
131.3483,-26.267406,-46.354034,15
131.66998,-16.620663,-5.933084,15
131.76164,-17.609026,-43.463093,16
132.22122,-0.583149,57.25232,16
132.35066,2.278085,60.346363,15
132.52873,5.723289,58.29952,15
132.61755,3.924224,11.479714,15
132.52786,-6.768078,-104.27853,15
132.86353,5.394691,-33.663548,15
132.12553,-52.654556,-596.00037,16
133.37885,18.288254,0.20724,16
133.43347,8.549448,-140.0155,16
133.6173,15.099021,-102.322,16
133.83058,18.69767,-110.240326,15
134.05273,23.280655,-107.49318,16
134.21147,29.031576,-73.41656,17
134.34918,29.795214,-98.38156,16
134.56892,32.076984,-124.3276,18
134.71588,36.876144,-99.27611,17
134.85944,40.70257,-85.85556,22
135.0034,43.81742,-81.64061,18
135.15082,46.373722,-85.43792,19
135.373,50.36574,-89.19127,20
135.52582,52.805347,-95.633255,18
135.8451,57.439007,-114.8048,17
135.93828,62.659115,-70.19903,18
136.18466,65.93286,-88.554146,15
136.53569,66.87946,-162.73833,15
136.61044,71.78471,-117.319534,17
137.11314,82.40295,-102.15017,17
137.25772,85.34878,-98.996025,17
137.46736,89.79364,-92.00268,18
137.61053,92.68807,-88.96244,19
137.76158,95.508194,-88.746925,21
137.91113,98.33731,-87.94765,21
138.05606,101.18382,-85.70637,22
138.20628,103.99756,-85.11541,25
138.35454,106.814064,-83.915474,28
138.51073,109.60855,-84.84809,31
138.67055,112.40419,-86.577415,40
138.8286,115.21024,-87.64527,46
138.98898,118.02224,-89.11819,43
139.15128,120.8429,-90.84872,36
139.30562,123.661125,-90.5988,32
139.4539,126.46634,-88.963165,32
139.59944,129.25688,-86.768105,35
139.74342,132.0325,-84.31702,36
139.88799,134.79857,-82.05102,35
140.03514,137.56375,-80.34431,39
140.1812,140.31642,-78.460266,36
140.33228,143.08278,-77.52703,38
140.48622,145.85811,-77.089325,39
140.64125,148.63623,-76.80567,38
140.79823,151.42242,-76.7998,44
140.95476,154.20462,-76.66298,44
141.114,157.00093,-76.902306,44
141.27242,159.79161,-76.95349,47
141.43408,162.60178,-77.433556,38
141.5935,165.39687,-77.51002,38
141.7572,168.22035,-78.14969,35
141.92068,171.04265,-78.68193,38
142.08183,173.84709,-78.80965,33
142.24818,176.69022,-79.5978,33
142.41266,179.51889,-80.05143,42
142.57861,182.359,-80.63449,40
142.74301,185.18555,-80.94124,40
142.9116,188.04643,-81.720345,44
143.07964,190.90297,-82.361,30
143.25548,193.82764,-83.882484,27
143.4286,196.72984,-84.97894,27
143.5953,199.57433,-85.237206,31
143.77562,202.54324,-87.01633,31
143.97049,205.65099,-90.34321,21
144.14223,208.54395,-90.92986,27
144.5928,215.37581,-103.485695,17
144.80057,218.6356,-107.52934,20
145.00047,221.82385,-110.58645,34
145.1801,224.81105,-111.42532,53
145.34785,227.67651,-111.00277,47
145.51546,230.53741,-110.542015,48
145.68752,233.44185,-110.49589,58
145.86128,236.36217,-110.58283,60
146.03198,239.24782,-110.33976,63
146.2018,242.12216,-109.9949,63
146.37263,245.00452,-109.71798,57
146.54378,247.88776,-109.44614,51
146.71751,250.79727,-109.3851,53
146.88934,253.68353,-109.12645,52
147.06325,256.5908,-109.02824,57
147.23727,259.4973,-108.9133,59
147.40927,262.37918,-108.60451,63
147.58023,265.24725,-108.19267,69
132.87476,-13.582502,44.548836,15
132.95488,-14.538579,19.325129,15
133.0943,-10.801691,27.885258,16
133.23146,-11.853401,-9.438963,16
133.44955,0.003964,62.338097,16
133.62936,3.489244,60.702705,15
133.75362,6.338954,63.901234,16
134.0063,13.123377,80.12828,15
134.1922,18.509893,96.0149,16
134.20969,-16.362514,-244.16107,15
134.47311,9.599622,-44.3997,16
134.60954,13.068437,-37.213882,16
134.83725,7.472597,-135.02107,15
135.04399,15.674973,-95.43566,15
135.2686,18.872805,-107.46027,15
135.47314,24.772417,-89.41279,15
135.61629,27.722256,-88.09692,16
135.76276,30.416632,-89.81378,16
136.02771,31.900936,-125.58995,18
136.13626,36.9714,-96.97972,17
136.26337,40.70925,-84.71548,26
136.39915,43.9111,-79.209175,18
136.67337,50.018356,-71.393974,19
137.00945,54.360367,-92.07238,18
137.22635,55.58617,-120.6519,17
137.59497,65.81047,-89.51721,16
137.95605,65.37297,-160.92957,16
138.0937,68.676865,-154.11421,16
138.5301,78.04249,-142.94208,16
138.72197,86.93005,-90.697,18
138.88525,89.67371,-93.694595,16
139.00995,92.65411,-87.14842,17
139.15593,95.49071,-85.89977,18
139.29974,98.32912,-84.16317,19
139.44896,101.13965,-83.63439,20
139.59178,103.96478,-81.709496,21
139.74942,106.74876,-82.87125,25
139.916,109.526695,-85.66814,27
140.08812,112.31533,-89.31139,31
140.25392,115.126175,-91.50235,32
140.41536,117.94808,-92.708176,33
140.57564,120.775345,-93.58835,35
140.72755,123.598236,-92.90496,32
140.87454,126.410385,-91.3551,29
141.01839,129.20888,-89.29761,31
141.16081,131.99425,-87.05545,33
141.3047,134.77255,-85.08466,33
141.44916,137.54309,-83.2361,34
141.59506,140.30959,-81.631996,34
141.7442,143.08002,-80.51908,29
141.89674,145.85812,-79.89191,35
142.05087,148.63922,-79.45864,35
142.20616,151.42284,-79.15581,35
142.36478,154.21991,-79.26767,36
142.5224,157.01128,-79.19364,39
142.68102,159.80623,-79.2005,47
142.84293,162.61783,-79.57783,41
143.00224,165.41469,-79.5694,45
143.1667,168.2407,-80.150024,32
143.33191,171.07182,-80.75298,42
143.49384,173.8828,-80.90151,38
143.66019,176.72148,-81.5133,32
143.82628,179.55896,-82.03191,34
143.99193,182.39369,-82.443085,45
144.16116,185.25339,-83.193375,32
144.32977,188.10916,-83.80837,27
144.49889,190.9691,-84.41933,25
144.682,193.93529,-86.44459,23
144.85347,196.81557,-87.157196,25
145.03014,199.73738,-88.34194,20
145.20203,202.6224,-88.97053,22
145.63882,209.89421,-90.98871,17
146.07497,215.74706,-108.45052,18
146.27406,218.88994,-111.102936,25
146.46169,221.93634,-112.585236,43
146.637,224.8752,-112.880745,52
146.80386,227.73734,-112.38744,44
146.97403,230.62665,-112.16512,48
147.14682,233.5379,-112.143654,58
147.31534,236.40738,-111.725174,53
147.48836,239.31696,-111.66959,54
147.66132,242.22427,-111.58135,56
147.83333,245.12018,-111.38466,53
148.00526,248.01376,-111.162155,51
148.17906,250.92361,-111.06737,49
148.35081,253.81125,-110.78465,54
148.52464,256.71765,-110.645355,51
148.69945,259.6322,-110.55993,56
148.86847,262.48618,-110.00935,58
149.03934,265.35703,-109.59048,65
134.08186,-7.789686,94.75639,16
134.18875,-8.30331,73.938866,16
134.35362,-12.469022,16.03308,15
134.54468,-1.270247,71.89427,15
134.96652,6.170472,63.047565,15
135.07147,11.979425,91.27415,15
135.32388,14.352192,70.33841,16
135.44388,16.842922,70.900085,15
135.6953,6.38931,-48.15035,15
135.86649,13.228645,-21.973684,15
136.30713,13.548273,-87.117256,15
136.73848,21.972155,-88.11416,15
136.92683,27.272371,-75.89326,15
137.09811,29.069838,-88.02374,16
137.47804,32.071274,-122.381004,17
137.59613,39.201546,-85.01562,22
137.7315,42.24967,-81.8063,20
137.85094,45.61511,-73.67924,18
137.97978,48.708,-69.03235,17
138.16447,50.721832,-81.12174,19
138.42137,54.301258,-91.7837,19
138.65417,58.38478,-94.77694,17
138.77605,63.92305,-69.6784,17
139.41542,65.75687,-150.76025,18
139.5513,68.94919,-145.92166,17
139.73381,81.87266,-71.11711,16
139.9668,84.117966,-87.95204,17
140.16858,86.65058,-97.82031,16
140.42036,92.553635,-88.20441,17
140.6305,96.8323,-85.188126,19
140.77118,99.668526,-83.33051,20
140.92773,102.45718,-84.14854,21
141.0861,105.247635,-85.16999,25
141.24806,108.03928,-86.65537,35
141.41191,110.83758,-88.3137,33
141.58221,113.64162,-90.82997,35
141.74857,116.45959,-92.589516,42
141.91269,119.286026,-93.901596,38
142.0778,122.11966,-95.24134,36
142.23251,124.94946,-95.027115,29
142.3759,127.76272,-93.20808,29
142.51785,130.56448,-91.21986,30
142.65709,133.35112,-88.90194,29
142.8021,136.13971,-87.36769,29
142.94719,138.92096,-85.85524,29
143.09596,141.70538,-84.80988,27
143.24217,144.47646,-83.44094,28
143.39539,147.26466,-82.91564,31
143.54764,150.04642,-82.254486,33
143.70242,152.83427,-81.86159,32
143.86237,155.64096,-82.02829,30
144.01756,158.42662,-81.61384,36
144.18106,161.24762,-82.08612,36
144.3429,164.06143,-82.32123,30
144.5007,166.85489,-82.07675,31
144.66937,169.70277,-82.94256,28
144.83542,172.53851,-83.46954,27
145.00073,175.37074,-83.86462,32
145.16666,178.2069,-84.27288,28
145.32967,181.02588,-84.342445,34
145.49799,183.87614,-84.887794,33
145.67363,186.77272,-86.08167,29
145.83827,189.60138,-86.165276,29
146.02403,192.56793,-88.17937,20
146.2112,195.54893,-90.22777,20
146.39185,198.49039,-91.59451,18
146.51949,201.8939,-80.81752,17
146.85362,208.35062,-74.04716,16
147.45863,214.46835,-111.22192,18
147.65701,217.57921,-113.49449,24
147.8424,220.59433,-114.61018,41
148.01804,223.53424,-114.874756,49
148.18484,226.40254,-114.39145,50
148.35309,229.28006,-114.00775,38
148.52504,232.1856,-113.893684,45
148.69629,235.08366,-113.700325,55
148.86624,237.96869,-113.38271,53
149.0384,240.87059,-113.21387,45
149.20975,243.76353,-112.959984,48
149.38455,246.68492,-112.94232,49
149.55637,249.5787,-112.682625,46
149.73521,252.53302,-112.90756,51
149.90907,255.44179,-112.748665,50
150.08,258.32224,-112.363,51
150.25162,261.20706,-112.01196,54
150.41844,264.04547,-111.31586,58
150.58772,266.90414,-110.78046,62
135.37329,-5.799176,92.39699,15
135.62634,-11.917833,20.617254,16
135.68317,-2.000595,76.065155,15
135.7818,2.289496,90.44401,15
135.9914,3.077661,68.258064,15
136.19302,10.458266,89.03124,16
136.28091,14.607295,104.05023,16
136.48132,12.284554,63.479572,15
136.6566,16.264978,66.27056,16
136.93378,15.816453,27.879843,16
137.28735,13.352232,-33.05515,16
137.52045,12.562713,-67.85158,16
137.60345,17.224419,-48.663383,16
137.82503,17.376928,-75.89425,15
138.1481,21.920065,-87.84921,15
138.18488,27.409515,-57.323563,15
138.46214,30.019388,-75.65742,15
138.86296,36.183357,-86.59747,17
138.99315,39.264736,-83.129585,25
139.13101,42.189213,-81.595146,22
139.24026,45.542366,-73.64802,17
139.392,48.21636,-75.384964,17
139.55957,50.697083,-80.317375,21
139.69106,53.672035,-77.47658,20
139.8955,55.782146,-89.34399,18
140.04901,60.715794,-76.391785,17
140.19025,63.54945,-75.53055,18
140.6154,63.867386,-126.49122,17
140.93605,67.54089,-142.38663,17
141.35051,72.79425,-159.44756,16
141.39038,83.95626,-90.69546,18
141.55411,86.72057,-92.695145,16
141.69308,89.5949,-90.84875,16
141.82677,92.476715,-88.24462,17
141.9697,95.3157,-87.028404,18
142.10588,98.16508,-84.86125,18
142.26425,100.95503,-85.79066,22
142.42651,103.743935,-87.16789,29
142.58173,106.55052,-87.50229,40
142.7389,109.35724,-88.03465,42
142.90462,112.161736,-89.59182,31
143.0789,114.9722,-92.12702,26
143.25258,117.79601,-94.44679,32
143.41237,120.626595,-94.95393,40
143.57417,123.460976,-95.63905,37
143.7303,126.293045,-95.593636,29
143.88339,129.12073,-95.1516,26
144.02547,131.92899,-93.43621,29
144.16402,134.72234,-91.33991,27
144.30693,137.51447,-89.74639,26
144.45636,140.3139,-88.8656,27
144.60356,143.10315,-87.735275,29
144.75136,145.88834,-86.658676,27
144.90576,148.68825,-86.25698,29
145.05592,151.47205,-85.40166,33
145.20705,154.2546,-84.62174,29
145.36816,157.07,-84.813705,28
145.52655,159.87482,-84.69739,27
145.69032,162.70026,-85.06043,28
145.85167,165.5159,-85.1473,25
146.01027,168.31873,-84.94016,29
146.18307,171.18584,-86.00705,30
146.354,174.04674,-86.83298,25
146.51564,176.86363,-86.776794,26
146.68175,179.70242,-87.08224,29
146.8453,182.52776,-87.12376,25
147.02945,185.4647,-88.89292,23
147.19307,188.29141,-88.84623,22
147.3747,191.22116,-90.275375,23
147.55545,194.14926,-91.558525,22
147.63745,196.48273,-84.752014,19
147.9058,200.84804,-86.398346,17
148.57152,208.6851,-112.35644,17
148.95125,214.74734,-115.23619,22
149.14656,217.82095,-116.989265,31
149.31808,220.73222,-116.908844,38
149.48706,223.62392,-116.614426,41
149.65602,226.51343,-116.29736,39
149.82193,229.37845,-115.742424,37
149.99442,232.28946,-115.63706,47
150.16731,235.20224,-115.53763,43
150.33989,238.11136,-115.39415,46
150.51369,241.02829,-115.311195,39
150.68742,243.94348,-115.20114,39
150.86066,246.85329,-115.035774,38
151.03804,249.7948,-115.12438,45
151.21237,252.71086,-114.9885,46
151.38626,255.62192,-114.80489,46
151.55899,258.5218,-114.527245,50
151.7266,261.3769,-113.90711,55
151.89397,264.22766,-113.26552,54
152.05846,267.05124,-112.43667,58
136.53703,-5.048153,98.243095,15
136.76099,-4.374503,76.93069,16
136.84315,-0.115885,90.77607,15
136.99777,4.368166,97.834114,15
137.1523,5.027727,84.28,16
137.34073,4.53273,60.766445,15
137.51494,8.470692,62.85538,16
137.63225,11.03557,63.82737,15
137.76103,13.218125,61.49655,15
137.89006,15.427153,59.306625,15
138.08203,18.846544,56.833824,15
138.50253,13.428496,-18.694555,15
138.8148,14.677146,-46.029922,16
138.93396,17.804693,-41.97192,15
139.24124,16.84483,-80.7069,16
139.4362,18.584438,-92.41746,16
139.58661,21.302618,-93.890236,16
139.65353,25.546335,-77.896355,15
139.63333,31.11779,-45.128548,16
139.77649,33.75464,-46.14555,15
139.94278,36.053806,-51.487926,15
140.32314,37.787323,-83.0432,28
140.46454,40.638447,-82.5577,19
140.59872,43.57591,-80.77877,21
140.7279,46.557903,-78.17683,17
140.90141,49.042652,-83.06363,19
140.93735,52.95986,-65.15485,19
141.26796,53.948757,-95.16897,19
141.35234,57.349476,-85.25915,18
141.44693,60.592434,-77.288,17
141.56487,63.598427,-73.10582,18
142.27812,66.36835,-133.92159,16
142.67024,71.78268,-145.34554,22
